ply
format ascii 1.0
comment File exported by Rhinoceros Version 8
element vertex 697
property float x
property float y
property float z
property uchar red
property uchar green
property uchar blue
end_header
-100.9834568801486 155.62105571540351 69.21553033622378 206 202 198
-100.87748491245404 155.20970520224034 67.72710548271615 255 255 254
-100.6111606970553 155.15601348297812 66.17154086292595 205 191 161
-100.57052479627556 155.11732003893275 66.22465514415072 167 153 122
-100.57266188333561 155.1102797187108 66.17598020511682 174 160 128
-100.85786686321327 155.84801344933598 70.71993398079053 254 255 255
-100.98232830949512 155.55951192301015 68.9626282799473 212 205 194
-100.86465491315914 155.18886996765073 67.57633984512256 252 253 247
-100.61023768035874 155.14811046291106 66.12356444560706 219 204 175
-100.85797822224926 155.82463969510817 70.66685667084096 254 255 255
-100.98251507203872 155.54336846262873 68.9276815534938 220 211 195
-100.60957804128194 155.14075188531052 66.07352484644625 211 198 164
-100.57489815890328 155.1059524891772 66.12577221347551 189 176 137
-100.57490954487517 155.09856252019077 66.07740633179253 191 178 138
-100.61210977050312 155.50230230288167 60.00236819197713 215 201 158
-100.7163900389798 155.1699254330279 66.21907727306964 218 208 185
-100.7154376277482 155.16176630783784 66.17088788817746 232 221 192
-100.76521300626139 155.10951859478376 66.17645859939583 205 197 183
-100.7178477523107 155.15315917022946 66.120390146066 226 216 179
-100.71657641439229 155.1478271399532 66.07157197021186 211 198 169
-100.57449194961913 155.01815250416215 66.23675335885684 229 219 190
-100.58844857438265 154.99418916671385 66.2402230080867 255 255 245
-100.58770725250655 154.9887953117027 66.19115394036933 255 255 252
-100.57461772458235 155.01302606751844 66.18782730812343 253 248 222
-100.57459273404731 155.00648347810213 66.13858595950072 254 251 225
-100.58650873018719 154.97761209407165 66.11833000225492 255 255 255
-100.57232502922528 155.00140470613727 66.08770889518826 254 254 239
-100.58491348057588 154.9673902069953 66.08840749766594 223 214 199
-100.88705879904899 155.72694612808763 70.43753492554497 254 253 253
-100.75592288547173 155.01694254754196 66.24004779762672 252 251 242
-100.75929317907072 155.00925888234056 66.18822836488118 221 220 211
-100.91946141399336 156.17923659423354 71.7031562355717 255 254 255
-100.91661961794262 155.32989752305187 68.5675288937465 254 254 254
-100.78297970941395 155.1723741040506 61.91987079581213 147 146 95
-100.67083516199921 155.2211419877075 66.42117474501525 208 196 170
-100.74195353447467 154.9810387481919 66.18948596527001 255 255 255
-100.75842705194302 155.00626428120103 66.13888688017101 237 230 216
-100.92996195372848 156.35714285631647 72.13765739728257 219 212 197
-100.90135569788832 155.42458308857115 69.11091333811798 255 255 255
-100.7806534589855 155.17150873013026 61.87042250642943 207 191 148
-100.64769193822404 155.20532371257056 66.34821204106261 166 164 153
-100.7435263542081 154.97743667334606 66.12884206506752 255 255 255
-100.90145269240124 155.31492173787484 68.483825692753 255 255 255
-100.68070052267043 155.20622962225053 66.3362118460422 209 197 166
-100.89788348791573 155.7070908822649 69.34720090495087 255 255 255
-100.74047003617747 154.9720122131145 66.09365812807434 255 255 255
-100.75800343182001 155.00077397031038 66.08889802225977 234 229 216
-100.9411452813061 155.73528500332847 69.85351886327241 245 234 210
-100.6111361522926 155.1351119061053 66.0265168479137 209 195 151
-100.5755521152563 155.09259558275605 66.02880372348463 213 198 168
-100.97811324940885 155.4808555267292 68.63669678585069 218 213 196
-100.61445396433952 155.1311224809642 65.97320982327729 185 178 136
-100.93809093779565 155.75768285979908 69.95015202554102 246 232 211
-100.61663679503658 155.12310878706282 65.925478992298 208 196 161
-100.57591122191889 155.0860475993291 65.97959976961107 202 183 148
-100.57633013349734 155.07895158138516 65.92985611139814 209 193 164
-100.71571849069183 155.1404993837146 66.02313052328441 200 194 163
-100.74005629316807 155.11882510483517 65.98829219280083 188 189 166
-100.71704104202684 155.13195269762429 65.97405222255513 188 184 157
-100.71653278336035 155.1247272204779 65.92502592981805 190 182 163
-100.75460608952328 155.08419052444773 65.92870443527903 229 221 202
-100.56810364875882 154.99650408726754 66.03841548039041 220 206 181
-100.58135048268102 154.96348701937796 66.04175804852056 209 188 166
-100.55920532354918 154.9935805834816 65.98557658880809 175 161 123
-101.19848652291402 156.44995257954116 72.29620871240985 255 255 255
-100.5798326714282 154.95319652094767 65.99113535196112 182 165 127
-100.561682757169 154.98874432214532 65.94135914785092 197 183 146
-100.57780847861024 154.94997795236878 65.94357368631175 251 246 223
-100.91600326040921 156.17356692143375 71.68199587673344 254 254 255
-100.90511171778942 155.3382156094829 68.63967874330395 255 255 255
-100.67233998684306 155.19626701393952 66.26083958406628 194 186 165
-100.74096984930958 154.96361335183119 66.02264803055822 255 255 255
-100.93812385423894 155.74695053799783 69.90607320508484 239 227 209
-100.6178802354039 155.11724942321376 65.87754634989916 213 200 165
-100.87742016245595 155.93553851828415 70.99492851598401 255 255 255
-100.98291239181576 155.44996112325143 68.48949770782697 227 223 196
-100.8406894701682 155.26441793062435 68.06989820179953 226 223 221
-100.61934473265717 155.11291835173984 65.82614792056455 207 190 158
-100.57473672051955 155.07343151589282 65.88062287294535 213 193 161
-100.57441310766545 155.07052617102073 65.83361412435018 188 175 144
-100.87437195329231 155.92538878419606 70.96223968409349 255 255 255
-100.98017028522187 155.52146304423795 68.83065594978316 215 216 195
-100.83620892613757 155.26419116938519 68.10616111912866 227 227 200
-100.62224000116659 155.10747895763217 65.77712275267426 209 193 162
-100.87872187804803 155.9648744362551 71.09021595884774 255 255 255
-100.9774101626625 155.47046293031516 68.58860430487464 237 238 199
-100.86966382576028 155.247839981145 67.97288336627881 246 251 240
-100.62186282494649 155.09915661363354 65.73017704145218 198 185 160
-100.55614412477497 155.0240985554587 65.78476845515344 169 154 121
-100.57560982872766 155.0655900805025 65.78178286637534 183 170 135
-100.57860389097831 155.0580237801133 65.73247179035882 191 174 142
-100.5605699296252 155.01912695177373 65.7366910899002 192 181 138
-100.71230732873055 155.11911868047557 65.87593316330134 246 245 230
-100.70875091299494 155.11324794358677 65.82745200036139 252 248 240
-100.75392139132408 155.0761138394311 65.87973184981948 249 246 233
-100.75182792152063 155.0716285252842 65.83173329557229 245 236 217
-100.76817319267406 155.02697184874208 65.83478868468652 247 245 235
-100.7070368485919 155.10610654587472 65.77644652998914 226 218 187
-100.79989757118838 154.97851727058745 65.18924488971334 214 207 197
-100.72960644464538 155.0831688988328 65.72913403054275 225 215 190
-100.75166442385061 155.05891089021094 65.73256611853246 235 225 202
-100.55809397073257 154.98278744801505 65.88835575882781 212 195 154
-100.55506646996973 154.97761888679057 65.83831673421378 223 207 172
-100.57517171555675 154.94092955843328 65.89349990950403 247 244 236
-100.572088370014 154.93307269127254 65.84259515009113 249 244 227
-100.5539168964147 154.97449197857298 65.79019569257686 200 180 146
-100.5555341735912 154.96878014943863 65.7410863247875 205 193 152
-100.57053404278193 154.92384664835902 65.79201775698115 179 164 131
-100.57177096298537 154.92372599225902 65.74416041295845 222 215 193
-100.58694926319102 154.89694432621135 65.7967232941456 152 137 108
-100.75094480479014 154.93667456765007 65.83747919615433 243 240 228
-100.7718677536218 154.83279521626937 63.945810637730766 180 162 124
-100.66326884920812 154.89869299952227 65.89721065198204 233 231 213
-100.7503547643018 154.8555041330184 64.07594593665806 255 249 152
-100.67680119381114 154.888164958892 65.84792296871579 235 232 215
-100.7549705128883 154.84900289024742 64.04035674126915 249 242 144
-100.67803431834407 154.8760086165493 65.79687311482061 235 233 215
-100.6741549233233 154.87119495783944 65.75974706714887 249 248 231
-100.88180685016373 155.9509891485952 71.04743184625104 255 255 255
-100.98152390494964 155.46184805835523 68.53893131025421 227 229 197
-100.85973435179464 155.25792513645368 68.0249754627504 248 250 233
-100.62680418873703 155.09333895469078 65.67895865486467 196 188 158
-100.57999410514013 155.05212483330232 65.68373597072309 198 183 147
-100.56238686731409 155.01526468395707 65.68655445271719 186 173 134
-100.96861510204697 156.0820365288629 71.00048941083651 255 255 242
-100.839189890523 155.36957500217477 68.66579891171365 252 248 219
-100.63033531551694 155.08714270332797 65.62744888849966 171 169 152
-100.84516637603963 155.37748464213013 68.71820713890908 253 250 222
-100.63516599450674 155.08523082803868 65.59964060220683 183 181 148
-100.58238674270012 155.04507297409347 65.63374028615618 222 211 167
-100.56472423906652 155.01016826540686 65.63569761868715 210 202 146
-100.58403811023689 155.04099732750436 65.58205437391969 207 194 155
-100.56743646224282 155.00706411886907 65.58694368817883 208 193 152
-100.60468732202122 155.20977064879875 60.67879982317495 216 201 157
-100.80045321583856 154.9797544146545 65.23747455902026 205 195 180
-100.7264662310265 155.07909260135793 65.67856576262409 224 216 194
-100.7519614152848 155.05292724601068 65.68221958295304 216 207 186
-100.60377101105107 155.20174332964388 60.723346737579774 185 190 109
-100.72581961555888 155.0738918600787 65.62973004049313 221 213 181
-100.60430615771385 155.19769842409775 60.77302924408364 227 225 171
-100.72260614147184 155.07084771282788 65.58112130199912 229 219 179
-100.75102067612055 155.0484178166926 65.63277174051744 224 216 185
-100.75350207727384 155.0446961375968 65.58399344465101 205 197 163
-100.55808112045571 154.96500740051746 65.69054297388226 242 231 198
-100.57291666926183 154.91604141025803 65.6932852993376 225 210 189
-100.58323253559367 154.88705172796583 65.64811742109264 184 163 144
-100.55887941224923 154.96042260327957 65.64025396018513 220 210 161
-100.5597727908521 154.95904495701578 65.58975183902179 221 208 167
-100.57196472960011 154.91105251908607 65.64335249486983 211 197 168
-100.58617792166162 154.88309230251014 65.59994618145022 243 233 200
-100.57228821303814 154.90931678896837 65.59459391511098 232 215 184
-100.58678715820855 154.8798309430524 65.56061758654032 156 150 112
-100.76593078111236 154.96384996442265 65.68955993730754 231 229 204
-100.60381668416343 155.2444136270055 60.62885820080362 234 209 170
-100.59228687604177 155.00572661141092 63.834667122255894 174 155 74
-100.80562207549828 154.9786175377519 62.04823743265459 246 238 217
-100.73222670615947 154.8929227213325 65.60558339255404 255 255 255
-100.71060182385943 155.13074423837978 64.67313154792468 173 166 130
-100.92179881915159 155.9154844429871 70.42705107578749 247 244 230
-100.88836853709952 155.2295662890247 67.37065745957307 231 225 192
-100.6863546561918 155.13112768585074 64.62991843577441 198 177 150
-100.92477776261393 155.96333486957948 70.56357732173169 255 254 249
-100.88998013747548 155.2273514438686 67.42159292768218 231 217 199
-100.68563576056846 155.1244065448442 64.6055905398531 230 204 164
-100.92510670290098 155.709512835856 70.33518031191413 253 251 251
-100.78213608475262 155.18310311434107 61.72124974327416 218 204 161
-100.74405168467108 155.08314561249267 64.82398768786487 210 210 200
-100.65194441585363 155.08125588476457 64.2403678376599 190 184 161
-100.78133347161659 155.18692584472757 61.671856829282085 209 190 143
-100.65112704690617 155.0761671352208 64.18699139468048 179 176 143
-100.58419202749772 155.03747390824944 65.53250369465661 204 189 151
-100.58556078215376 155.03191875377263 65.48501295883325 211 197 160
-100.83721805877914 155.33542562893274 68.51374330409031 247 239 209
-100.631979772316 155.06639490950718 65.3700166596743 184 180 121
-100.58723937478106 155.02582464501572 65.43215972294814 212 194 142
-100.58873757626947 155.02275362349033 65.39097393850216 188 181 110
-100.57166746837625 155.61270909801186 59.54640644100534 219 207 97
-100.69883632221335 155.07962691172665 65.52607070778106 234 224 194
-100.79531521335788 154.96711676552462 64.98977944078408 213 210 192
-100.72234324591395 155.06894928382442 65.53106631035816 219 210 179
-100.57687367588856 155.59946444413595 59.58868265160429 227 204 125
-100.70058686690903 155.0753746673347 65.47797621934458 240 219 167
-100.60924645175122 155.33799451125273 59.700278688010606 235 210 174
-100.79749129684988 154.9692564077094 65.0389562428773 229 226 208
-100.72369769752473 155.06518194987532 65.48251422043212 221 209 164
-100.75781555204011 155.04274390682988 65.5330592220557 198 194 170
-100.75772985621711 155.03882231781526 65.48294120614193 197 195 173
-100.70271529894053 155.07406787646707 65.42972083653274 236 220 167
-100.79614670441165 154.98190105303755 65.28624612761566 220 213 188
-100.72557375449479 155.06391428550407 65.43385314735593 218 207 168
-100.71264895963846 155.0724961236747 65.38058165842313 226 212 164
-100.79120960343195 154.97537430082446 65.32751468125024 239 231 203
-100.73389254365064 155.0624289765748 65.38511199861951 220 208 168
-100.75771608157147 155.03786751014903 65.4341234143708 207 196 166
-100.56074566028506 154.9557503044493 65.54068480889012 203 191 152
-100.57203568248829 154.90554229966006 65.54337540062062 202 189 158
-100.56407464726604 154.95188374581596 65.49032998916812 215 205 175
-100.57460901191622 154.90378938868943 65.49419583117165 198 189 153
-100.56749214252481 154.9485512464678 65.43992373955388 196 183 140
-100.57075055812902 154.94411830912935 65.39046504494144 220 202 163
-100.57833059531548 154.90106977776253 65.39493987865278 220 208 181
-100.89879897485865 155.10667712185545 66.88430206946059 251 249 250
-100.64340274842365 154.83863249513294 65.38152149802495 255 255 255
-100.60373207414231 155.23777919064156 60.67811493249067 224 198 159
-100.80749169130968 154.98694881200828 61.997470854073676 244 235 211
-100.73433246995292 154.88022583752937 65.55085651821277 255 255 255
-100.8082381808231 155.37057813200138 68.87137040732323 202 193 162
-100.60152390439404 155.23222190602567 60.72744702391445 156 160 82
-100.8140414465001 154.95600861930913 62.34535174503569 233 216 187
-100.73521559594371 154.87380399387834 65.48295600609725 255 255 255
-100.91014150742771 155.12351430756988 67.1339467292738 252 247 245
-100.67281242561332 154.844970089926 65.55433765993219 248 248 242
-100.91230221477868 155.12455225632658 67.18132444712442 252 247 243
-100.67766134260839 154.84197118060476 65.50432060980374 236 236 224
-100.91736883202898 155.12783188267818 67.22701558198763 253 245 238
-100.65930742074067 154.84036489249704 65.45558117017002 246 246 240
-100.8402193180556 155.31013542766306 68.36975812525655 255 254 216
-100.63308730621885 155.0673675132279 65.32875727443108 187 186 131
-100.76062639625718 155.0573539684741 66.5842418229109 255 255 254
-100.59051041008465 155.0115032260308 65.32660230092408 170 154 107
-100.77019160097342 155.07025975015677 66.631767189969 255 255 255
-100.59014357828617 155.01060829778095 65.30674379471382 181 171 110
-100.98108475735368 156.16108895274738 71.21835569159111 238 241 220
-100.8441269824793 155.32460015186984 68.42438588616356 255 255 215
-100.62597120502049 155.0669236679073 65.27749477157666 192 180 135
-100.86573649491122 155.87039333589598 70.8134975927116 254 255 255
-100.97971394944418 155.57673168604728 69.07856355028242 239 236 198
-100.85852356105036 155.18069013683248 67.47769605997449 251 253 243
-100.62097492482135 155.06364871518883 65.23011572705951 219 207 159
-100.58883028280432 155.01226054798832 65.26665505646464 221 197 141
-100.5873197461549 155.01447280152223 65.23435974787992 202 193 135
-100.60594286061739 155.37858305673473 59.451465652776115 165 148 94
-100.8091405064271 155.2701602451686 60.15071144933705 175 161 135
-100.80827080850625 154.89696735168832 63.239658528063686 235 232 203
-100.78776522358514 155.1055669157651 66.3977870477606 203 179 176
-100.73746395682065 155.06234079971338 65.34419822428862 244 225 176
-100.58839089965065 155.56109816301026 59.72921542717139 234 213 168
-100.72079274581267 155.07230034624757 65.33217278058392 248 241 170
-100.76750289466835 155.03587889136278 65.33463633902088 216 210 169
-100.90330109915301 155.68322002735133 70.34317119106487 253 253 251
-100.78878672062517 155.00441578972286 65.30436816006358 230 220 201
-100.59213703224026 155.54977053732537 59.778897801752976 211 196 137
-100.72222643810962 155.0801615425903 65.2807170345956 205 198 153
-100.71815834065991 155.08250959905067 65.23176127470141 230 218 171
-100.77634568354489 155.0401919434198 65.28432542155053 201 202 176
-100.80542796243715 155.49996507346603 68.4763515431334 251 247 209
-100.79157496256772 155.01917663395272 65.27265549394188 236 227 190
-100.77644680200599 155.0376487133752 65.23387990786034 180 179 161
-100.57382736702 154.9414724944754 65.33994773180581 225 213 181
-100.58088604592645 154.90015592597814 65.34468904024718 227 222 196
-100.89699256545786 155.1016480909188 66.90872200967587 252 249 250
-100.64365265800285 154.83835235720812 65.35135408619055 239 241 230
-100.57729879879454 154.93703412835214 65.2916136080721 240 229 193
-100.58362668866833 154.90156765763055 65.2940831822385 251 247 231
-100.57850086195357 154.93354916360212 65.24035241791042 242 237 211
-100.58560293121131 154.90301798300763 65.24417132617549 247 243 226
-100.64330356232429 154.84054430461725 65.29506806638301 243 244 227
-100.64872295957106 154.84360622545344 65.24630123114535 254 253 241
-100.96622268174923 156.0667852538497 70.9549038514185 254 253 245
-100.86563621175236 155.85682394524827 70.76604281235142 254 255 255
-100.8654644225302 155.18655987654645 67.52432443954646 252 253 246
-100.61871443387531 155.06452359453363 65.18347793945712 245 241 205
-100.97376449797676 156.43879350666393 72.30324566253073 253 252 253
-100.86443650161021 155.89472074260306 70.89954000300227 255 255 255
-100.98148156842687 155.59755454381786 69.17142278318548 200 197 193
-100.85193240373884 155.1719822218931 67.37685716587963 254 254 249
-100.60646395883856 155.0616966379311 65.13103908124809 235 225 173
-100.5829212567177 155.01788809964708 65.18211740782226 222 213 145
-100.58164471308342 155.02175058924954 65.13487365344537 215 211 145
-100.58939187003132 155.05038687014115 65.07432930068708 199 197 121
-100.86538236516078 155.8810535648327 70.85475235202233 254 255 254
-100.97940096005685 155.58177390520206 69.12455225977646 207 209 194
-100.8545202161912 155.17551714246457 67.42932819690013 252 254 246
-100.60809252546235 155.0700519115911 65.08337776147543 225 214 159
-100.58092235122598 155.02233944049078 65.0857481711428 204 206 127
-100.72207898972859 155.08312602081423 65.18233713167488 215 207 152
-100.78479555185416 155.3939420097955 68.24674723394045 214 207 169
-100.75567454366222 155.06504385623447 65.13177697374942 204 201 171
-100.65750020068337 154.90691292911274 65.99879374149931 210 196 168
-100.7794146006032 155.0370421357475 65.13603884838197 224 214 188
-100.77860698225955 155.0334529797173 65.18603958607297 211 202 179
-100.60773927616422 155.50882170705412 59.96634602241246 211 194 127
-100.73001272119288 155.08953466390517 65.0843740818053 217 205 163
-100.76017249621273 154.8392687411866 63.90708068036233 183 185 174
-100.65778849618005 154.90947223659475 66.0246203337638 194 198 165
-100.78278967912694 155.03537448651784 65.08347325519921 196 190 166
-100.58751241806621 154.90246683709944 65.20739375947036 202 195 173
-100.5806870534923 154.93053200796987 65.19077522997547 240 235 224
-100.60728430997004 154.87652621789587 65.19338918105782 245 243 231
-100.57964681163821 154.92902439234442 65.14070800080948 243 242 232
-100.59029934415408 154.90522009792264 65.1346514499143 236 226 209
-100.58132696296481 154.92934420964193 65.09158078917388 250 250 248
-100.5917651485472 154.90457211917402 65.09160213517121 251 250 244
-100.61304430487941 154.8789507801045 65.09473427792379 251 250 243
-100.59217842832297 154.90318262387578 65.04121126063175 255 254 253
-100.65055448833687 154.84776541836277 65.19340251856043 255 254 248
-100.88628368756089 155.2018626269261 67.53514679973496 255 255 255
-100.65697643348736 154.84895858850982 65.1628282527267 255 255 249
-100.96971973461699 156.02680090023276 70.8089442738722 251 241 228
-100.84313605351248 155.4037823093372 68.85074421107859 225 220 206
-100.60671500874534 155.07319845705632 65.03052731403254 195 192 130
-100.5759329498514 155.02018489133772 65.03447125657935 190 190 128
-100.71338020030457 154.8614693018314 62.76065914844824 211 192 165
-100.79518674057807 154.8428583127545 63.94769786837537 172 157 127
-100.58693068510631 155.04680956290142 64.98258210072777 206 192 141
-100.97620435252064 156.13235318085765 71.14382835290294 249 237 222
-100.83974778191276 155.41699194556753 68.91903493413993 233 222 206
-100.6059477325919 155.07155991610816 64.98409803550196 177 172 120
-100.57439345652222 155.01738712724583 64.98664832587143 240 235 198
-100.96278053974564 156.05175941946342 70.90683693921382 250 245 224
-100.84450140487492 155.388797257964 68.76731590934749 253 249 215
-100.8482572692185 155.014307256767 62.485060773313286 138 130 97
-100.605698121344 155.07448768882725 64.9383747094822 189 183 136
-100.71602883596765 154.8502112861523 62.88435909210499 219 203 160
-100.58417768046338 155.05066766283235 64.93197105394339 212 206 130
-100.96594863566624 156.03565054260096 70.86118728988266 248 240 223
-100.84624513638468 155.39723704042527 68.81140582428748 246 239 219
-100.59861114393809 155.07612778059212 64.88219067882264 189 183 124
-100.71826766100293 154.8527338172353 62.83529054689302 190 173 131
-100.5793513700857 155.05289997144857 64.88276281560142 196 185 120
-100.5699011555036 155.01452362859743 64.93667766387986 228 220 154
-100.56468321286394 155.01229915201642 64.88556375454034 197 192 120
-100.58014763388127 155.58511532495334 59.634437517566596 229 208 142
-100.7324748815903 155.08912877859302 65.03246609346816 211 202 170
-100.58478043422052 155.57265482799693 59.681467195445094 226 212 162
-100.73491125250476 155.0878145900537 64.98359823226302 222 217 185
-100.66164750921972 154.92341153730237 66.09118072764885 255 247 217
-100.78262292571631 155.0314261513122 65.03428101435344 225 220 204
-100.64326561604362 154.93195035254905 66.15050016269521 166 148 130
-100.78310016052991 155.02428644631775 64.98795918046694 234 228 207
-100.90811344804153 155.61466765733908 70.05048597854403 251 248 247
-100.78827965395907 154.9416762424856 64.97635155714796 236 226 206
-100.73710082986264 155.08580306027494 64.93560173881747 211 206 165
-100.73920535433706 155.08533251752036 64.88867357490648 234 231 219
-100.78514534402177 155.01079142588065 64.88495432474976 224 214 191
-100.78476339293893 154.95823192172026 64.88811917299809 244 235 215
-100.58085397957629 154.9270825674722 65.04053143253077 254 253 251
-100.58079203729848 154.92550108069707 64.99060404170552 246 246 241
-100.59342539819556 154.90065896736297 64.99019193750257 190 189 159
-100.61130141405764 154.8784283196622 64.98992454567518 158 159 127
-100.5808908974105 154.9249240053393 64.94138047916667 255 254 253
-100.61962315155468 154.87905415810508 64.9436877101718 235 228 212
-100.57959534698725 154.92089332345176 64.89018581704202 251 246 236
-100.61991200603923 154.8782172721176 64.89283231491174 250 247 233
-100.84780977620785 155.1330388938716 61.164751553389756 212 199 167
-100.79153907632197 154.90373844599654 64.17702904726806 232 225 179
-100.72096153944175 154.8721299662287 64.98096119380008 248 250 250
-100.73726448549576 154.8894249287686 64.92283867202278 255 255 255
-100.8475027180552 155.13701407466255 61.1152409478152 221 205 179
-100.71258265843717 154.86815154984674 64.9446928853427 244 247 247
-100.84530301570706 155.1249867334123 61.265716259253 171 159 119
-100.71003134875693 154.87042720921986 64.89088146532544 243 247 248
-100.94016426615778 155.83775240828032 70.24900666980962 254 243 233
-100.84080559281226 155.53203966007854 69.66047658708175 255 255 242
-100.84789889927546 154.9357162696466 63.139025996232284 156 153 105
-100.60037290239408 155.07710519950427 64.83522855928373 173 166 124
-100.81710541217974 155.51251425116507 69.45482349841541 234 220 206
-100.82270995537414 154.92626895050745 63.34390812841578 252 250 240
-100.58327395444245 155.42270340422732 59.348088336416076 216 189 148
-100.73505005579909 154.86205831412158 65.28951661845257 255 255 255
-100.57742920105584 155.05108618384943 64.83398200333669 211 200 146
-100.95409540308572 155.94211933100036 70.57514256429435 255 255 254
-100.83922977370499 155.51882103906064 69.60495232415587 249 231 215
-100.84860319119122 154.93776728485184 63.09624107313405 159 147 120
-100.59868537962774 155.07526127314281 64.78620919010382 185 171 135
-100.56188004617019 155.00834147956607 64.8362346649232 218 218 175
-100.56171374001828 155.00679536910567 64.78668836004721 197 197 131
-100.94256490165444 155.86536970426425 70.3396839157314 251 242 238
-100.84372133937106 155.55661795133523 69.75611628033346 253 252 248
-100.84674533565705 154.94685563752026 63.04463672107108 179 169 144
-100.59763717506527 155.07454832869465 64.73765896675017 197 186 145
-100.94163782032201 155.84923337039484 70.29057266106639 251 235 228
-100.8425429246023 155.5452291464557 69.70664726594018 255 255 245
-100.84710281989784 154.94600210902104 62.99771152678436 178 165 139
-100.59512606937385 155.07306483534344 64.68714869968342 201 184 143
-100.56194150646657 155.00394412847297 64.7377998019358 213 205 155
-100.78988100908495 155.02480176800498 64.75626811580294 219 203 188
-100.7858379221765 155.0110549408423 64.83908389251044 212 205 174
-100.78786108624752 155.01806890296947 64.79261245626888 224 211 184
-100.66628153460341 155.31061733838646 59.72700767275959 228 195 156
-100.78385902026857 154.9539832749148 64.84268870043181 245 241 221
-100.6621191851132 155.29429801602774 59.780338219421424 227 199 169
-100.78517588920461 154.94758095322598 64.79100142150791 234 229 202
-100.74883141634447 155.3361532398539 67.85164585519385 191 185 155
-100.78138871595601 155.0544930578335 64.73615845950866 188 179 151
-100.78248943182119 155.25701723647433 67.8536968093204 202 194 166
-100.66356601986057 155.28295188133052 59.82784112930209 217 194 161
-100.78556931282225 154.93736625598507 64.7403800686162 233 228 213
-100.57895797823136 154.92096071207087 64.84188569441655 243 240 229
-100.62201627258385 154.8767059920775 64.84314314875212 215 210 191
-100.58139682837204 154.92093301848584 64.79154850326495 253 253 250
-100.58216095564858 154.92063228699934 64.74190761788327 254 254 252
-100.72696557152899 154.88237623100102 64.82453028333995 244 247 248
-100.72669962451711 154.88165895596921 64.79225676623223 245 248 250
-100.72920444043888 154.88264650833588 64.73873212954341 246 248 246
-100.94716476644378 155.89628477646454 70.4351677681686 251 247 245
-100.85137525009196 155.43436209682574 69.06728603477582 236 226 214
-100.84653444554242 154.95241937817272 62.968779306752694 215 202 174
-100.59404022053695 155.0722256021808 64.64869313818127 168 162 76
-100.56209139875729 155.0011381543915 64.68798048435953 206 201 153
-100.58313478109785 154.91958507869307 64.69155814646993 240 238 216
-100.56535717851592 154.99900346084866 64.63711982662319 186 189 122
-100.58518938696136 154.91994681411214 64.64280082936591 252 251 242
-100.96916085926993 156.01101962514744 70.76158226325236 239 229 216
-100.84416111078392 155.42653987848118 69.01141310857524 243 229 214
-100.59412229441983 155.0675479043238 64.58107974941825 133 132 86
-100.95268889632287 155.9258309869955 70.52863578077104 255 255 253
-100.85242907356023 155.44666807554518 69.1663729676558 237 223 208
-100.59757627212694 155.06240930820485 64.53535815960699 158 156 116
-100.57079004777273 154.99812278366437 64.58831646859166 169 175 89
-100.5882696518804 154.92273653473845 64.59766348686871 254 253 235
-100.57481231308822 154.99542209914875 64.53957582740527 190 192 119
-100.79107312395301 155.01890221707455 64.66522502053185 204 196 183
-100.7906090698618 155.01943881163808 64.63763687691383 243 221 203
-100.79082265408995 155.02080890020358 64.59936449567027 230 218 190
-100.66474252081294 155.2721585348704 59.87461892752129 207 182 149
-100.78310180286472 154.93870281211767 64.68747745164305 234 230 219
-100.78261331763977 155.04907239244315 64.54137019606378 210 198 157
-100.62903624939857 154.87453896050857 64.69215453026084 228 222 207
-100.60642155720383 154.8942040270763 64.64028190707444 239 234 222
-100.63263248216147 154.8727173864595 64.64734426690306 197 192 172
-100.69923726680567 155.12338377116262 64.60971060475181 208 188 157
-100.64110711111888 154.8722019049195 64.57600674721431 233 220 195
-100.60959352373442 154.89799074498453 64.54223220522981 236 220 190
-100.73199981834138 154.8824003840706 64.69131651163327 241 241 221
-100.94976178016147 155.91064639110448 70.48141632585234 240 234 228
-100.84148144557186 155.44414496962224 69.11312949596581 228 213 206
-100.59987067032438 155.05601178808885 64.48662225537367 183 179 129
-100.84732054982098 155.29476232402047 68.27333566509249 247 239 215
-100.60203057965992 155.05175461489864 64.43765476027167 191 181 139
-100.60141121746858 155.25583705199077 60.530643413537504 232 203 163
-100.80952865990139 154.9733912705493 62.147637721351224 226 214 186
-100.72887843932746 154.90423122401282 65.69093566718095 252 249 237
-100.58707294476496 155.02662096824307 64.43924853935745 191 185 138
-100.57570864092239 154.99386548077226 64.48901853492293 172 166 117
-100.58988862864011 154.9194899425659 64.50221148374338 204 186 152
-100.57841764831092 154.9915990736245 64.44002266252858 184 175 131
-100.937672433884 155.840639288496 70.21350977030485 255 239 228
-100.8489196188112 155.30019938598917 68.32151931974985 253 249 227
-100.60131482737138 155.0500286168375 64.38895275345772 213 205 165
-100.60225443421068 155.2498809422889 60.578273199842286 240 214 175
-100.80735780702923 154.9768455853124 62.09822074787413 243 234 215
-100.72779135813352 154.89666635954907 65.64431085154008 255 254 253
-100.58841913803542 155.02543587661313 64.38821813800604 197 186 144
-100.58032528192965 154.98935739943713 64.38970691089818 185 171 137
-100.60970589418369 154.89468590538706 64.4902332648174 179 169 140
-100.61150139241765 154.8947564339479 64.44074409824098 193 183 148
-100.61555917382304 154.89261000920845 64.39237651225203 205 190 164
-100.58261212543103 155.18339538397416 66.56353078517574 227 212 164
-100.70398163083041 154.84747420845747 64.35921257819676 247 243 238
-100.60372251667873 155.0443959265878 64.33997885790588 167 161 118
-100.58732538662034 155.36745651735632 59.69304317552566 213 182 141
-100.80578764263701 154.9946892774468 61.799878272901296 211 195 166
-100.72985349947587 154.90965821902955 65.74947775569557 235 230 211
-100.70512519003822 155.0248356811561 66.63071328775985 243 243 228
-100.59056576134468 155.0154707595042 64.28897921249607 197 181 143
-100.84771827670578 155.289673129015 68.22157564756826 233 228 208
-100.60537037241268 155.04087189936786 64.28946271251365 185 179 137
-100.58204954456626 154.98912314330428 64.33992232825248 176 167 133
-100.58353213802702 154.9864393496859 64.29036300082463 193 182 144
-100.58517691619161 154.9865809396444 64.24113328695229 200 184 146
-100.78286009197645 155.04850144938933 64.34023939989707 216 209 175
-100.89170428689329 156.06461564276702 71.37967010081346 254 252 243
-100.90387220203664 155.2869392684466 68.31994308430758 255 255 255
-100.67587592423398 155.13398081322586 62.36019546297967 155 153 116
-100.7598176068183 155.07567488608873 64.2898434170166 197 195 155
-100.89668301248086 156.08971270487226 71.47825670992245 255 255 237
-100.66535575853692 155.13698601275857 62.26246697223378 189 180 145
-100.7639223769131 155.07180525018018 64.19123288962084 205 194 162
-100.78641965839014 155.0452231346321 64.19160223283785 188 178 150
-100.61606065407827 154.89200269257387 64.34143494652199 214 204 169
-100.61662482285786 154.88874180371818 64.29144238541012 226 214 190
-100.6138779485305 154.88630640007952 64.2402794571158 228 208 180
-100.61596675361942 154.88615879756665 64.19190798951111 206 195 167
-100.84946990378455 155.1440160112291 61.02117228918616 228 215 186
-100.72455327432121 154.8530590676581 64.2292911157842 235 235 209
-100.65296436051308 154.85535116095414 64.19021319701484 246 235 212
-100.83419992498129 155.6376704730577 70.1042033974273 253 237 222
-100.8153475842624 155.23128376276821 60.37831578283455 217 198 166
-100.80101214460888 154.89305326801164 63.39058525391153 214 219 175
-100.79528768886817 155.11362641797623 66.62967432593571 237 230 210
-100.71842796776326 154.84954512193383 64.1984309082297 235 228 171
-100.75883140187084 154.89443932944 65.39399537006919 254 254 252
-100.67947928863813 155.26677046115887 67.15901792497924 241 237 192
-100.64722850373255 155.0694453356853 64.04270773093741 162 155 112
-100.76096171179664 154.89029687773976 65.34330635965144 254 254 251
-100.92569387740569 155.59245786929657 69.90416391635182 251 248 248
-100.68164503950823 155.27050171090804 67.203848925883 201 191 153
-100.76844678550054 155.59548062244446 59.683579084965075 223 195 148
-100.65108500173436 155.0686667391801 63.9927557448244 185 177 140
-100.7629125654221 154.887315495136 65.29608307542287 255 255 254
-100.89125734770505 155.43859558495964 69.25082677988186 254 236 216
-100.67393233409618 155.2663447228629 67.06174785953499 208 201 164
-100.65277109230696 155.06885528853965 63.94283508370486 177 177 131
-100.76604766774956 154.88725000244472 65.24499568354202 255 255 255
-100.88851019433167 155.47745382054973 69.42824058983368 255 255 255
-100.6726319119115 155.26635004447522 67.10291602231727 224 222 174
-100.65205114998385 155.07130712212756 63.894186187527794 181 169 113
-100.92116773547424 155.51298379468875 68.32513962446845 250 252 211
-100.7469991444956 154.9327769365435 65.79425026919986 194 183 173
-100.91462226804698 155.7694598556482 70.5301715003206 254 253 253
-100.64075286665863 155.25026995871758 66.76350972483704 254 246 183
-100.65216378132952 155.0693042117797 63.64962730923809 194 179 145
-100.92228297715113 155.52003293519084 68.37135242697055 246 242 211
-100.74811211165476 154.93116837645368 65.74259278789201 226 220 203
-100.6429643038462 155.25401305209087 66.80849941337368 251 241 183
-100.6523413278046 155.0702751745347 63.597694327328895 178 167 124
-100.91852648015458 155.50139092553246 68.21981167291632 230 225 208
-100.74818273091475 154.92738077649685 65.69475384958562 250 245 219
-100.91831978001227 155.74131248177272 70.43479924276058 254 253 253
-100.64071484892757 155.23907386983734 66.66675743335153 241 225 180
-100.65434617813663 155.07089042505078 63.543927721806114 180 169 124
-100.92668412632068 155.507281686914 68.27058328668491 221 225 205
-100.71863620782807 155.7053388779237 59.305176788554185 196 168 111
-100.74715494009502 154.92044158648966 65.64497405802854 248 241 224
-100.9074701388438 155.78953588909647 70.57127574166503 254 253 253
-100.63873873169696 155.2446774317747 66.71195154093732 240 226 173
-100.65759159172617 155.07124241997124 63.49789524400359 187 173 134
-100.76507154776736 154.8860060561755 65.19419599087365 255 255 255
-100.65562084535178 155.06998837520194 63.44820651744824 206 194 148
-100.76511297293754 154.88787663040728 65.14523553932017 255 255 255
-100.6384313308813 155.23044930875983 66.6000532781129 207 193 178
-100.65431804994222 155.069960277987 63.39851828862451 217 200 164
-101.09414893578756 156.5270501127041 72.28100717841846 238 226 222
-100.73840315396932 155.1014952352884 63.376298364311324 183 175 135
-100.77447412263642 155.08104676517422 63.39941170259976 192 182 138
-101.10368194591548 156.58300894172245 72.4152240319501 229 221 224
-100.73499883806004 155.10256430441314 63.35496243380172 209 193 153
-100.9242205720678 155.52785873288988 68.41605795513789 242 236 212
-100.75446878161381 154.88677683733155 65.09344943634932 255 255 255
-100.6570614295882 155.07287164827144 63.34942016845974 206 199 166
-100.77303899458884 155.08481240249895 63.349988558804654 196 185 153
-100.75197583255988 154.8889429089294 65.0412156258421 255 255 255
-100.65664311801912 155.07252723191976 63.29937581117953 206 195 155
-100.7419723477328 155.101311699634 63.30111966173537 210 193 151
-100.74502920490778 155.10168158176614 63.26158651322026 195 180 138
-100.90142100374489 156.26805910512763 71.78251598661569 253 252 253
-100.65653919607487 155.07292798626125 63.25126701371418 211 201 174
-100.77538322297164 155.08458415362193 63.300692659161996 207 194 152
-100.77490694358067 155.08724071383767 63.25137313762278 194 182 143
-100.92837419058611 156.3618688002715 72.12696020066973 227 216 201
-100.65864185881088 155.07481631756247 63.20000533693116 219 215 194
-100.77346274294592 155.0887563525933 63.20220752196689 188 178 137
-100.77420423106913 155.0885872052586 63.152412678910096 196 183 142
-100.7752615193777 155.08946523965156 63.10343208088624 203 190 142
-100.77711787152383 155.0918859938264 63.05282788922024 201 188 143
-100.78228158374975 155.09662938793647 62.956164943222824 224 223 185
-100.92747445530716 155.55795841079964 69.7562440355093 251 248 246
-100.66684814200978 155.14630507806567 65.96716620414247 181 182 145
-100.66518697904569 155.08462677428514 62.85446119022611 183 171 134
-100.89909086484548 156.25337946860245 71.74216432994822 254 253 254
-100.67806638414798 155.1547819565499 66.02409128629427 241 240 210
-100.66603137640203 155.08723609643346 62.80395634058788 217 215 200
-100.93767450797942 155.80829876633894 70.14373968858493 248 243 228
-100.84051491115254 155.50985084071343 69.55669614728595 239 222 211
-100.84710582450818 155.05224296297848 66.39897533318117 252 250 252
-100.61050243189922 155.03297874479364 64.14101298268393 211 199 167
-100.93626990945951 155.79974794187223 70.11433202089361 229 222 218
-100.84291813193866 155.50183783791823 69.51343978509973 236 225 208
-100.84509758179885 155.04731469066516 66.43568354918078 253 251 253
-100.61105932253699 155.03147711663829 64.09141156969814 245 240 226
-100.88972584612208 156.07441478767504 71.41579232291873 239 232 229
-100.66427818048551 155.14032068971449 62.21344387371738 201 196 167
-100.76073017812591 155.07173087431565 64.14122360993116 202 197 146
-100.78383360669493 155.04635517255946 64.1431474642748 193 184 144
-100.76220329635251 155.06982941038055 64.09206328696109 206 200 147
-100.78449046620231 155.04517584247802 64.09152829986711 197 183 140
-101.10389870576074 156.477958994106 72.48851801069779 251 248 249
-100.59395742520485 154.92021787065252 64.24948312005758 206 189 163
-100.76165616334602 155.06945355125683 64.04206866032993 204 194 161
-100.78473526662681 155.0447941750265 64.04334077248176 200 190 153
-100.617941566518 154.88576414122636 64.14122989837963 200 187 146
-100.61887507220892 154.8857169981768 64.09180549533059 189 178 134
-100.62056364468458 154.88466289629758 64.04085878734217 232 227 207
-100.65614408575347 154.85385142146524 64.13787423253983 218 202 135
-100.66265760137684 154.85091175216047 64.09055661904762 197 181 116
-100.66340162330222 154.84984387820714 64.04091091165542 228 208 171
-100.77443181857001 154.86260492309418 64.04767535004302 246 232 146
-100.78563453788004 154.85425995670164 64.01598942072422 220 213 123
-100.59530783349922 154.9844003490345 63.98993037711554 250 248 240
-100.7647733230837 154.96876038344877 65.74022196632843 243 240 226
-100.59683411163846 154.92912443433858 63.98979341502466 239 227 199
-100.76941130992604 154.95590478120235 65.59136236998452 232 228 182
-100.59806356619546 154.92820442239918 63.943566621731854 198 182 123
-100.59434523345578 154.99934050827784 63.8936568030034 193 178 115
-100.59459268308115 155.00127653884158 63.86021386784503 153 144 76
-100.59198273411815 154.92200867628426 64.4709568132432 191 177 145
-100.7624337298612 155.06820615266392 63.99354340068627 222 211 177
-100.78598063363064 155.04447420198625 63.99304913753219 244 238 208
-100.76552096215157 155.06759236257508 63.943624146174194 230 222 179
-100.66983255941176 155.22783323863254 67.16641468215118 247 244 205
-100.78846378195676 155.0468159119673 63.94578028623518 212 193 145
-100.66004288609699 155.22642982986824 67.11477394505006 213 202 146
-100.79145040340845 155.0501319156078 63.9038416334496 234 214 139
-100.5942783623221 154.9255149396474 64.38976123006242 182 171 139
-100.76968539073317 155.06988296942 63.89304195492663 239 226 167
-100.77217319766226 155.07498122012916 63.843993928495884 207 193 157
-100.79475003970684 155.05489411743602 63.81546233229372 157 162 127
-100.62066058144028 154.88555830048057 63.99138528485605 229 213 178
-100.62253535820155 154.88439668871584 63.94070932645972 182 167 101
-100.62311574458455 154.8839040765636 63.890448531119404 175 159 99
-100.62138129788546 154.8825650681878 63.84122872118071 176 163 87
-100.66980876205123 154.84734582903005 63.98945326759266 204 182 133
-100.67310113150607 154.84633609866114 63.9410479345721 203 185 131
-100.82332001660828 155.20473652251744 60.523128106897424 218 198 167
-100.7991407199405 154.88905901943556 63.641196647373974 219 236 206
-100.81751932678289 155.1269392379448 66.77774923512695 223 214 199
-100.69944265204174 154.8349954796813 63.93802077938949 216 201 145
-100.72008956097167 154.8579459151294 62.78371690818789 191 180 143
-100.5995147860981 155.11148176222977 61.81006271002357 147 140 69
-100.58508890665028 155.04987203504731 65.03352165988166 203 197 133
-100.79594941401133 154.84823138190555 63.97911045927878 192 181 124
-100.9191480501514 156.36173135047585 72.06918480768076 235 219 203
-100.68780678785495 155.16116713818877 66.0639637881643 216 201 184
-100.66333081784872 155.0832502398029 62.951296163017 183 168 123
-100.67324826742214 154.84364900516195 63.890027853609965 233 217 170
-100.57663047887665 155.51918524498564 59.31779296330127 170 187 120
-100.82941807322868 155.19002562329578 60.62100054382647 229 214 186
-100.82973751694635 154.87747557177207 63.935748285148236 208 214 190
-100.69742649606985 154.8279983441066 63.858112611313665 229 223 160
-100.8330996207594 155.18463069072556 60.67064603437546 214 197 166
-100.82129185438006 154.8828172223277 63.892189616708734 178 168 134
-100.57412528230647 155.53068187549604 59.274490919215005 177 186 111
-100.69646078914268 154.8309861551595 63.88667154362547 244 230 176
-100.67020387847107 154.8408188647571 63.83923147428682 219 202 144
-100.78635727699015 154.85754715622713 63.880815373961596 216 207 170
-100.78528078593659 154.86247216757334 63.835567134332095 209 199 149
-100.57670459121461 154.90124557076032 65.44457011814191 215 209 185
-100.98077515744303 155.6601663174322 69.8828018690214 254 254 247
-100.61665573607944 155.28447197849994 60.73518407613221 233 213 161
-100.844221743539 154.89518589697687 63.948896101596176 192 192 127
-100.59507276243146 154.98420252964715 63.78331446799918 196 187 152
-100.59704370847146 154.97822310498125 63.74312115788704 178 167 127
-100.93031144946417 155.61644765542434 69.99592809833298 251 248 248
-100.63990400377493 155.25660711537344 66.88475688653497 250 248 150
-100.7763666509447 155.61720145878056 59.58827051603045 186 170 118
-100.65310491702685 155.06804634723713 63.69589250366252 221 212 186
-100.92201555224102 155.86576608955224 70.28692418504482 254 243 235
-100.93356459003297 155.14879298641236 67.11359383217189 253 246 246
-100.74277134530487 155.23573001552023 66.62299881406915 209 203 176
-100.59929271404452 154.9776907069249 63.692963426501194 234 227 197
-100.59521822034674 154.9230194972591 64.29054127489857 195 184 157
-100.77319619257624 155.0709291230657 63.79520450208285 233 222 193
-101.08923311376454 156.45851780724365 72.41938537401096 252 249 251
-100.59528114786053 154.92439532435066 64.34076202033052 198 188 153
-100.77323395269707 155.07426821619114 63.74520764472331 235 231 202
-100.79570763835746 155.05260952584192 63.73866516102848 247 244 231
-100.81539119657248 155.74891753709258 69.9568556426211 246 234 225
-100.7995139009575 155.09342606794038 66.78527893676157 255 255 255
-100.81349756876983 155.02555405975718 63.74428128124191 215 200 172
-100.77364791416039 155.07293595410843 63.69691560381334 254 253 238
-100.6225350790325 154.88143725456166 63.741662388384405 222 205 170
-100.6236075770357 154.8811175307824 63.692519785406745 174 160 125
-100.67308531364691 154.8412995521968 63.79359771535225 201 185 144
-100.66823890375238 154.84559296018273 63.741204500710346 218 199 163
-100.78509975775304 154.86488009364066 63.789987126557406 184 181 141
-100.66896322356304 154.84647897613306 63.691478283459595 196 177 146
-100.59968443962937 154.97758856473394 63.64362957510387 250 247 238
-100.77504106943258 155.07821565180328 63.44878878472345 208 196 157
-100.60056027717836 155.19110060759442 66.86780708369714 219 209 155
-100.6035320540144 154.9273040211765 63.64192279854145 234 222 200
-100.61266514601114 155.0330374890468 66.63622021464136 251 232 189
-100.6006197568392 154.97733725953594 63.59407811514189 190 181 134
-100.610737060316 155.0398827695542 66.67122614995981 229 197 186
-100.60136573622748 154.97727528101026 63.544237262045776 201 191 155
-100.5998497303311 154.9763798303319 63.494226168337256 239 235 225
-100.77459883789847 155.07172012498057 63.64715273205121 253 250 232
-100.8236405614988 155.77267259136315 70.05691306298482 253 250 246
-100.80654874787305 155.10397119031435 66.88513359021754 255 255 255
-100.81479053972032 155.0235668954962 63.64519810131275 201 189 153
-100.77368260406632 155.07407097119312 63.59691208918363 238 222 184
-100.81858578351707 155.75998177231753 70.01030305306261 249 242 231
-100.80644383924874 155.10269352824943 66.93424554767266 253 254 252
-100.81233559271895 155.0273462461226 63.59568935368712 213 196 163
-100.7741054559687 155.0764047612382 63.54732672449064 217 204 165
-100.77293653026312 155.07816297037584 63.499100683926514 195 183 146
-100.81926533583787 155.03734005784702 66.58724598601962 215 211 185
-100.81338616283003 155.02608950607816 63.54662629015239 217 197 162
-100.82528548247436 155.0443724788939 66.62995566914033 220 211 185
-100.81492259932527 155.0263756005892 63.49659518894125 197 181 150
-100.62366450101327 154.88451767391936 63.64109176144324 214 194 162
-100.62497003414359 154.8852324815352 63.59147838587568 205 190 157
-100.62576329022562 154.8856617361548 63.54113302300073 211 195 159
-100.62707636698727 154.886883049573 63.49142342326154 226 215 190
-100.66962658972938 154.84701591831475 63.6399835431948 204 186 155
-100.67017652967114 154.84843012228498 63.59121499107442 233 216 177
-100.77303991687421 154.86624064074346 63.641145509843376 223 222 196
-100.61275423563966 154.88013081518434 65.04656777801719 234 230 209
-100.89616307678487 156.2932088957794 71.71980817337032 253 252 253
-100.75211214773658 154.849764973599 63.596986686015256 233 222 203
-100.67204614289649 154.8480401179037 63.537081549723005 212 191 160
-100.67531992871334 154.8495458700772 63.49302511555293 198 188 151
-100.96637391415999 155.5406556636408 69.60371529581676 254 252 251
-100.8465701867848 155.16289559143164 67.27757549478567 255 255 252
-100.61738983962378 155.026894782706 63.44643951003802 223 217 189
-100.97439726599887 155.44731718069013 69.26249894688956 255 255 255
-100.84820631413643 155.1642909744764 67.3287451549537 255 255 251
